ply
                format ascii 1.0
                element vertex 92
                property float x
                property float y
                property float z
                end_header
                32.064278 5.434316 -37.955776
13.150001 -7.080000 72.150009
11.622755 -2.030621 19.985569
-36.388889 0.466667 80.166672
9.300000 0.840000 144.300003
-26.944445 3.466667 80.166664
13.458333 2.600000 60.124996
3.014286 2.948571 20.614286
-19.650000 -7.780000 72.150002
16.948277 1.868966 24.879311
4.423057 3.069215 18.499895
-5.174862 -0.712659 10.022765
5.321428 -2.414286 51.535713
31.833332 -3.600000 240.500000
36.576008 4.130664 55.498573
-0.739036 -0.267151 -2.633170
6.450000 -12.679999 72.150002
0.554837 -0.137908 1.178314
14.179447 2.168722 -18.026537
-10.613979 -1.756631 14.434897
-51.751652 -8.230260 72.152252
3.953526 0.478646 -5.542602
-5.238432 -0.906194 8.296651
9.611111 -6.755555 80.166664
-26.549999 -4.980000 72.149994
0.465338 -0.010881 -1.016793
14.499999 -3.120000 48.099998
-18.499998 -1.527273 65.590912
-30.833334 2.066667 240.500015
-4.625000 3.050000 180.375000
-5.700000 3.040000 144.299988
28.950003 1.820000 72.150002
29.650002 1.920000 72.150002
-16.099998 4.040000 144.300003
-27.136362 3.381818 65.590904
-5.772727 3.745455 65.590904
-8.961539 3.246154 55.500004
20.687500 2.175000 30.062500
0.104170 4.008309 30.062263
4.100000 2.937778 16.033335
1.258607 0.949635 4.975739
8.845900 -0.461488 15.115246
0.500000 -24.799997 721.500000
0.425109 -0.027868 0.749501
-9.250000 3.533333 120.250000
12.348484 0.642424 21.863634
12.014593 1.079401 21.220371
11.781250 2.575000 45.093750
10.734375 2.693750 22.546875
-17.316666 3.240000 24.049999
-7.970158 2.184041 14.430249
-13.177420 3.522581 23.274195
-59.939842 -7.037773 90.190964
-9.818630 -1.178227 17.600065
-11.900001 0.640000 144.300003
-5.214286 3.600000 103.071434
-28.791668 3.516667 60.125004
10.816667 2.706667 24.049999
0.198523 0.044793 1.130943
-7.420490 3.470470 16.397795
0.564292 -0.123516 1.189695
-48.380291 -7.484143 60.131439
10.926471 -1.729412 21.220589
0.431170 -0.006349 -1.087528
9258820987518976.000000 22221172947025920.000000 -460706195355729920.000000
12.759263 -1.241985 25.749146
1.234118 -0.251931 -3.120651
13.546876 2.600000 22.546875
7.796875 2.850000 22.546875
-11.083333 3.240000 24.049999
-9.661765 2.858824 21.220589
-9.212724 2.655061 18.037889
-11.890624 3.350000 22.546873
23.679749 -6.118341 -40.057419
-17.250000 -7.280000 72.150002
11.041666 -1.966667 20.041666
-14.616683 -2.002177 24.152609
-13.816667 3.440000 24.049999
18.092497 -4.045312 -27.744083
13.676306 -22.076374 -119.558418
0.433862 -0.031238 -0.918834
1.314049 0.172160 -2.391043
0.776659 0.048123 -0.996166
7.442861 0.981548 -10.601119
-5.265125 0.151183 7.680777
13.843751 1.450000 45.093750
0.913535 -0.105298 -2.434503
0.618056 0.102524 0.910971
-9.803573 2.971429 25.767859
0.365708 0.050267 0.767723
40.125000 -9.400000 60.125000
0.622866 -0.143652 -1.023994
