ply
                format ascii 1.0
                element vertex 164
                property float x
                property float y
                property float z
                end_header
                -0.198548 0.003388 -0.029481
-0.030711 -0.234910 0.035168
0.175905 -0.224066 -0.218025
-0.091773 0.226757 0.046584
0.046526 -0.061358 -0.064036
0.154135 -0.048471 -0.297459
-0.297428 -0.051874 -0.051528
-0.210924 -0.038725 -0.049253
0.015229 -0.095887 0.030826
0.011864 -0.024274 -0.160619
-0.158139 -0.026013 0.033810
-0.156161 -0.138516 -0.109673
-0.052746 0.037383 0.106207
-0.008593 -0.037119 0.054801
-0.187851 -0.190133 0.088003
0.124336 0.061301 -0.111837
-0.048407 -0.334613 0.235719
0.186716 0.183232 0.025281
-0.385449 0.007101 -0.030892
0.101355 -0.145990 0.061164
-0.029783 -0.029723 -0.025223
-0.005005 0.085229 0.027935
-0.091706 0.223092 0.037156
-0.414978 -0.077828 0.043560
-0.343586 -0.006146 -0.066394
-0.040076 -0.048412 0.234522
-0.106263 0.058274 -0.250289
0.231509 -0.412537 0.044858
-0.263257 -0.000826 0.023063
-0.412973 0.061104 0.008185
0.183492 -0.071393 -0.188171
-0.084481 -0.111117 -0.150280
-0.159488 -0.037448 0.018815
-0.180629 -0.254683 -0.234862
-0.026962 0.087015 -0.100194
-0.368840 -0.206616 0.187032
-0.358976 -0.073869 -0.234226
0.038427 0.218958 0.016881
0.020080 -0.049318 -0.199325
0.199088 -0.053748 -0.052420
-0.342661 -0.089839 0.392021
-0.068818 0.022249 0.023456
0.028395 0.029359 0.032348
-0.061787 -0.060706 -0.059788
-0.050808 -0.011537 0.026796
0.029965 0.046742 -0.067107
-0.065235 -0.076528 -0.088492
-0.088115 -0.032875 -0.025204
-0.057443 -0.035029 -0.012594
-0.073104 -0.018833 0.000851
0.022273 0.042560 -0.093566
-0.093380 -0.089002 -0.026474
-0.090374 -0.088303 -0.084637
-0.038220 -0.053102 -0.046329
-0.041690 -0.049949 -0.068133
0.004343 -0.043823 -0.051771
-0.027594 -0.025220 -0.030547
-0.014510 -0.025457 -0.007972
-0.004347 -0.004119 -0.062156
0.004130 -0.003735 -0.034420
0.001920 0.001038 0.004458
-0.032472 -0.030737 0.009940
0.010781 0.017777 0.021676
0.022523 0.028007 0.036037
0.046106 0.039777 0.037929
0.039621 0.040810 0.061701
-0.081890 0.025168 -0.044420
-0.006327 -0.029727 -0.028484
-0.010554 -0.023437 -0.012307
-0.008922 -0.002244 0.005239
0.000408 0.007606 0.008307
0.017601 0.048817 0.050644
0.050247 0.059230 0.051369
-0.086895 -0.006777 -0.005468
-0.002220 -0.094562 -0.062447
-0.014053 -0.037216 -0.031234
-0.035215 -0.029890 -0.004072
-0.007358 -0.029683 -0.006925
-0.072527 -0.028838 -0.038812
-0.038566 -0.036818 -0.029611
-0.047049 -0.058148 -0.051123
-0.020930 -0.003790 -0.041788
0.507074 0.474862 0.484830
0.492368 0.531407 0.493661
0.408777 0.530541 0.530104
0.501695 0.385871 0.460259
0.460190 0.495839 0.525276
0.421256 0.492639 0.538947
0.539012 0.487367 0.488164
0.528827 0.491559 0.492045
0.245142 0.502038 0.466575
0.471725 0.483054 0.454587
0.456131 0.487886 -0.099933
0.557277 0.538672 0.506788
0.485434 0.464703 0.442810
0.557369 0.491063 0.336287
0.344578 0.523237 0.469121
0.437560 0.454006 0.505905
0.492717 0.542977 0.381402
0.403531 0.407155 0.259940
0.515456 0.473596 0.511655
0.444176 0.518169 0.456967
0.513135 0.513163 0.484707
0.476682 0.448262 0.467053
0.501930 0.624215 0.463146
0.539077 0.500607 0.449264
0.545838 0.477651 0.501133
0.491775 0.083380 0.379193
0.585047 0.546655 0.534914
0.383924 0.549489 0.462406
0.536580 0.475759 0.467974
0.549483 0.456924 0.473054
0.495842 0.498447 0.525415
0.502127 0.508974 0.600247
0.546665 0.490475 0.470267
0.381349 0.534152 0.531999
0.586799 0.601179 0.504057
0.545988 0.518624 0.607618
-0.686204 0.560081 0.335671
0.463633 0.659833 0.582453
0.583704 0.496955 0.522014
0.648005 0.494164 0.496646
0.487642 0.511103 0.651938
0.835894 0.879773 0.873797
0.869382 0.813364 0.868341
0.893388 0.815252 0.817240
0.858661 0.894176 0.886157
0.886094 0.864982 0.845861
0.891364 0.865506 0.783086
0.783096 0.871035 0.870865
0.820094 0.869277 0.869084
0.966607 0.859307 0.883944
0.881384 0.874218 0.871090
0.870756 0.867968 0.994067
0.810487 0.826346 0.850867
0.871843 0.883082 0.889097
0.829173 0.868898 0.937692
0.919760 0.829549 0.877212
0.890124 0.888529 0.854763
0.868721 0.769781 0.893815
0.895701 0.894781 0.963291
0.765322 0.880706 0.857946
0.890186 0.842726 0.887367
0.857176 0.857226 0.874256
0.878995 0.889652 0.883522
0.859738 0.748198 0.884769
0.731480 0.861251 0.891530
0.763178 0.877580 0.860610
0.865936 0.995023 0.894001
0.803983 0.834799 0.806481
0.893809 0.726172 0.885447
0.801685 0.879573 0.883426
0.726307 0.887372 0.880957
0.848623 0.862595 0.828230
0.859190 0.851522 0.783888
0.817417 0.870624 0.882306
0.906610 0.800548 0.811121
0.809162 0.793490 0.857270
0.751408 0.829123 0.771883
-0.632619 0.824604 0.912368
0.882218 0.718224 0.811761
0.810802 0.865591 0.828790
0.733649 0.865755 0.864859
0.802714 0.854803 0.647727
