ply
                format ascii 1.0
                element vertex 123
                property float x
                property float y
                property float z
                end_header
                -0.237527 -0.082329 0.606624
0.003850 0.025289 0.539755
-0.033739 0.026844 0.554855
-0.035325 0.032661 0.566342
-0.288813 0.036096 0.653345
0.040500 0.037252 0.568510
0.196897 -0.069160 0.457558
-0.274843 -0.074463 0.650769
-0.266782 -0.073159 0.648651
-0.106880 -0.059171 0.584276
0.253593 -0.012902 0.431538
0.052569 0.030239 0.519388
0.052507 0.033817 0.519347
-0.070935 0.054038 0.573236
-0.075705 -0.079335 0.620996
0.172921 -0.073186 0.472597
-0.056003 -0.088420 0.569192
-0.379855 -0.113004 0.688236
-0.379810 -0.112522 0.688309
-0.059555 -0.037743 0.559527
-0.059168 -0.028941 0.560551
-0.257195 -0.070044 0.644837
-0.044549 -0.040296 0.565481
-0.056673 -0.014492 0.566165
0.015755 -0.075629 0.253610
-0.111587 -0.021916 0.584235
0.034874 0.000963 0.527834
0.013460 0.025271 0.535209
-0.027766 0.048683 0.552556
-0.184389 -0.107412 0.521860
-0.181611 -0.107241 0.523833
-0.029970 -0.102541 0.562101
0.034012 -0.026632 -0.100529
-0.192676 -0.111506 0.687583
-0.167625 -0.106859 0.651873
-0.128896 -0.099471 0.595614
-0.060499 -0.043838 0.556791
0.042333 -0.060133 0.526228
0.119455 -0.052108 0.498044
-0.010363 -0.050280 0.672198
-0.042720 -0.057485 0.565156
0.058443 -0.072661 0.358633
-0.204240 0.004722 0.374639
-0.229201 -0.052828 0.630749
0.100321 -0.059017 0.534786
0.139684 -0.031000 0.491572
0.068992 -0.028384 0.510964
-0.130840 -0.035737 0.591866
-0.055722 -0.016702 0.567176
-0.434686 -0.033071 0.705366
0.263722 -0.008919 0.426712
0.208458 -0.004853 0.450519
0.204779 -0.004603 0.455033
0.026244 -0.064524 0.269846
-0.503644 0.005396 0.673515
0.008063 -0.004241 0.537746
-0.036007 -0.040119 0.596372
0.113858 0.002157 0.498970
-0.173235 0.001232 0.614873
0.068927 0.005024 0.514970
-0.034745 -0.037882 0.598634
-0.034673 -0.035857 0.598632
-0.028851 0.011370 0.554423
-0.005694 0.012265 0.542304
0.095800 0.019982 0.503862
0.031618 0.024533 0.528626
-0.106668 0.026197 0.583817
0.298173 0.037433 0.834291
0.041995 0.040731 0.523466
-0.567312 0.063031 0.736967
-0.090366 0.046186 0.581255
0.048860 0.042544 0.503924
-0.450205 0.051916 0.715217
-0.007003 0.046503 0.544281
-0.077148 0.071695 0.582300
-0.046281 -0.094568 0.567911
-0.048654 0.025294 0.083797
0.262329 -0.049686 0.424153
-0.132171 -0.007869 0.727686
0.069805 -0.035610 0.654834
-0.310347 -0.035319 0.663270
0.259014 -0.011808 0.429537
-0.568098 -0.032275 0.756692
0.050661 -0.013899 0.522229
-0.328380 -0.011129 0.669315
-0.000939 -0.002551 0.540897
0.026107 0.005930 0.529726
-0.568592 0.000562 0.756544
0.068859 0.008571 0.514918
0.009291 0.009429 0.536977
0.216224 0.020741 0.584290
-0.082765 0.056593 0.577846
-0.227196 0.061147 0.634383
-0.098327 0.058482 0.584419
-0.130492 0.069558 0.597723
-0.191711 0.065532 0.765730
-0.195112 -0.106304 0.668771
-0.043013 -0.007784 0.563360
0.021325 -0.006198 0.532998
-0.199236 -0.002449 0.420632
-0.318136 -0.118122 0.667233
-0.289553 -0.076988 0.655881
-0.033320 -0.017367 0.725194
0.109661 -0.046901 0.757639
-0.116876 -0.036435 0.587979
-0.490866 -0.046865 0.726619
-0.249198 -0.036050 0.625509
0.242307 -0.005275 0.787189
0.567444 0.011631 1.084704
-0.089581 -0.035996 0.679212
-0.256724 -0.007590 0.367912
0.043557 -0.082210 0.525531
0.304861 -0.040152 0.918700
0.020795 -0.047812 0.717518
0.024766 -0.047566 0.719909
-0.056976 -0.042535 0.574122
-0.240502 -0.035728 0.629851
0.271367 -0.064131 0.883263
-0.062082 -0.067165 0.570790
-0.060611 -0.059112 0.574250
-0.426878 -0.026074 0.607492
-0.105099 -0.004434 0.597919
0.605226 -0.064514 1.006502
